ply
		format ascii 1.0
		element vertex 98463
		property float x
		property float y
		property float z
		property uchar red
		property uchar green
		property uchar blue
		end_header
-877.132812 2814.384033 -9000.843750 137 133 134
-890.575195 2814.384033 -9000.843750 136 133 134
-904.017578 2814.384033 -9000.843750 137 133 134
-949.451843 2789.891846 -8922.513672 135 132 133
-962.777222 2789.891846 -8922.513672 135 132 133
-983.102600 2809.898926 -8986.499023 135 132 133
-1327.721313 3598.391113 -11508.220703 135 132 133
-1340.803833 3587.409180 -11473.099609 133 131 132
-1475.758667 3624.278809 -11591.013672 121 115 114
-1493.069336 3624.278809 -11591.013672 116 110 110
-1508.829346 3620.557617 -11579.113281 115 111 111
-1526.122192 3620.557617 -11579.113281 113 110 110
-1543.415161 3620.557617 -11579.113281 114 110 110
-1563.919434 3628.007324 -11602.939453 116 111 110
-1579.622803 3624.278809 -11591.013672 115 111 111
-1596.933472 3624.278809 -11591.013672 112 110 111
-1614.244141 3624.278809 -11591.013672 111 110 111
-1629.879639 3620.557617 -11579.113281 109 109 109
-1647.172607 3620.557617 -11579.113281 111 109 111
-1666.176147 3624.278809 -11591.013672 113 111 111
-1685.218750 3628.007324 -11602.939453 116 111 111
-1885.401855 3613.138672 -11555.385742 117 114 114
-1902.659302 3613.138672 -11555.385742 119 113 114
-1917.951660 3609.440430 -11543.558594 119 113 114
-1935.191406 3609.440430 -11543.558594 116 114 114
-1952.431274 3609.440430 -11543.558594 117 115 115
-1969.671021 3609.440430 -11543.558594 120 115 116
-1990.986572 3616.844238 -11567.237305 120 115 116
-2016.534668 3631.743896 -11614.888672 120 115 116
-2035.977783 3635.487793 -11626.862305 119 116 116
-2053.342041 3635.487793 -11626.862305 119 117 118
-2077.130371 3646.766602 -11662.933594 120 117 118
-2094.548340 3646.766602 -11662.933594 121 118 119
-2109.784668 3642.999268 -11650.884766 120 118 119
-2122.798828 3635.487793 -11626.862305 122 118 119
-2144.584961 3642.999268 -11650.884766 126 120 121
-2168.706299 3654.324707 -11687.105469 124 119 120
-2188.428223 3658.115479 -11699.228516 123 121 121
-2205.900391 3658.115479 -11699.228516 124 121 122
-2223.372803 3658.115479 -11699.228516 124 119 120
-2243.171875 3661.914062 -11711.377930 125 120 121
-2608.996826 3635.487793 -11626.862305 133 131 131
-2620.957031 3628.007324 -11602.939453 134 129 130
-2643.725342 3635.487793 -11626.862305 133 130 130
-3138.443115 3665.720703 -11723.551758 139 139 138
-3155.951660 3665.720703 -11723.551758 140 138 138
-3166.876465 3658.115479 -11699.228516 140 138 139
-3184.348633 3658.115479 -11699.228516 140 139 142
-3201.821045 3658.115479 -11699.228516 138 139 142
-3219.293213 3658.115479 -11699.228516 169 171 174
-3711.180664 3804.124268 -12166.188477 192 191 192
-3725.331787 3800.025146 -12153.078125 169 169 172
-3743.481934 3800.025146 -12153.078125 145 145 153
-3697.875488 3735.617920 -11947.093750 137 137 142
-3653.789307 3673.357422 -11747.975586 135 132 133
-3652.312012 3654.324707 -11687.105469 130 128 128
-3650.849854 3635.487793 -11626.862305 127 124 125
-3664.436279 3631.743896 -11614.888672 122 120 120
-3681.782471 3631.743896 -11614.888672 116 113 113
-3699.128906 3631.743896 -11614.888672 111 108 108
-3712.651611 3628.007324 -11602.939453 107 102 103
-3726.146729 3624.278809 -11591.013672 103 100 101
-3743.457275 3624.278809 -11591.013672 110 108 109
-3764.637207 3628.007324 -11602.939453 109 107 108
-3785.860596 3631.743896 -11614.888672 123 121 121
-3811.056641 3639.239746 -11638.861328 17 17 17
-3852.291992 3661.914062 -11711.377930 0 0 0
-3873.805176 3665.720703 -11723.551758 0 0 0
-3974.725098 3661.914062 -11711.377930 0 0 0
-3947.128906 3620.557617 -11579.113281 0 0 0
-3627.854736 2789.891846 -8922.513672 0 0 0
-3641.179932 2789.891846 -8922.513672 0 0 0
inf -inf inf 0 0 0
inf -inf inf 0 0 0
-inf -inf inf 131 127 128
-inf -inf inf 132 127 128
-inf -inf inf 131 127 128
-inf -inf inf 131 126 128
-inf -inf inf 130 127 128
-inf -inf inf 131 129 129
-inf -inf inf 130 127 128
-inf -inf inf 131 127 128
-inf -inf inf 133 128 129
-inf -inf inf 137 130 132
-inf -inf inf 135 130 131
-inf -inf inf 131 129 129
-inf -inf inf 130 129 129
-inf -inf inf 131 129 129
-inf -inf inf 132 130 131
-inf -inf inf 131 131 132
-inf -inf inf 130 130 129
-inf -inf inf 131 129 129
-inf -inf inf 133 130 131
-inf -inf inf 133 131 132
-inf -inf inf 132 130 130
-inf -inf inf 133 128 129
-inf -inf inf 135 129 130
-inf -inf inf 135 129 130
-inf -inf inf 135 128 129
-inf -inf inf 135 130 130
-inf -inf inf 133 129 129
-inf -inf inf 131 128 128
-inf -inf inf 131 129 128
-inf -inf inf 132 130 131
-inf -inf inf 133 132 133
-inf -inf inf 132 131 131
-inf -inf inf 129 126 127
-inf -inf inf 130 126 127
-inf -inf inf 132 129 130
-inf -inf inf 131 129 129
-inf -inf inf 130 129 129
-inf -inf inf 131 131 131
-inf -inf inf 130 131 131
-inf -inf inf 128 128 128
-inf -inf inf 129 129 129
-inf -inf inf 124 123 123
-inf -inf inf 112 108 109
-inf -inf inf 94 88 90
-inf -inf inf 86 80 80
-inf -inf inf 118 115 112
1993.653931 3652.008301 -11735.750977 139 137 137
1972.023071 3644.423584 -11711.377930 141 138 139
1948.462646 3633.105469 -11675.006836 142 137 139
1931.026489 3633.105469 -11675.006836 142 137 139
1915.573364 3636.870361 -11687.105469 143 137 139
1900.088257 3640.643066 -11699.228516 141 136 137
1880.665039 3636.870361 -11687.105469 139 137 137
1863.210815 3636.870361 -11687.105469 139 137 137
1847.671265 3640.643066 -11699.228516 138 136 136
1830.198975 3640.643066 -11699.228516 139 137 137
1812.726685 3640.643066 -11699.228516 140 138 139
1793.394043 3636.870361 -11687.105469 139 137 137
1775.939941 3636.870361 -11687.105469 140 138 139
1758.485718 3636.870361 -11687.105469 140 138 139
1739.229248 3633.105469 -11675.006836 140 138 139
1718.235718 3625.599121 -11650.884766 139 137 137
1702.594482 3629.348389 -11662.933594 140 138 139
1685.176392 3629.348389 -11662.933594 140 137 137
1660.888062 3614.397461 -11614.888672 139 137 137
1640.163330 3606.968018 -11591.013672 141 138 138
1621.186523 3603.264893 -11579.113281 142 137 139
1605.541992 3606.968018 -11591.013672 142 138 137
1503.222900 3610.678955 -11602.939453 142 137 139
1484.367310 3606.968018 -11591.013672 142 137 139
1468.565918 3610.678955 -11602.939453 141 138 139
1452.732056 3614.397461 -11614.888672 140 138 139
1435.385620 3614.397461 -11614.888672 139 137 137
1422.434082 3625.599121 -11650.884766 140 138 139
1407.942993 3633.105469 -11675.006836 140 138 139
1393.391724 3640.643066 -11699.228516 140 138 139
1381.652466 3655.812500 -11747.975586 140 138 139
1364.107300 3655.812500 -11747.975586 141 137 139
1346.562256 3655.812500 -11747.975586 141 138 139
1329.017090 3655.812500 -11747.975586 140 138 139
1311.472046 3655.812500 -11747.975586 140 138 139
1293.927002 3655.812500 -11747.975586 140 138 139
1273.728271 3648.211914 -11723.551758 140 138 139
1251.017944 3633.105469 -11675.006836 141 138 139
1233.581787 3633.105469 -11675.006836 141 138 138
1214.888062 3629.348389 -11662.933594 144 138 138
1193.766479 3618.123535 -11626.862305 144 138 139
1171.571045 3603.264893 -11579.113281 142 137 139
1153.094238 3599.569092 -11567.237305 142 137 139
1135.819092 3599.569092 -11567.237305 142 137 139
1118.543823 3599.569092 -11567.237305 141 138 139
1101.268677 3599.569092 -11567.237305 140 138 139
1085.106445 3603.264893 -11579.113281 141 138 139
1067.813599 3603.264893 -11579.113281 142 137 139
1050.520630 3603.264893 -11579.113281 141 138 139
1033.227783 3603.264893 -11579.113281 140 138 139
1013.853027 3595.881104 -11555.385742 140 138 139
996.595520 3595.881104 -11555.385742 140 138 139
979.338074 3595.881104 -11555.385742 140 138 139
959.132446 3584.862061 -11519.976562 140 138 139
939.050293 3573.910400 -11484.783203 142 137 139
920.960388 3570.274658 -11473.099609 144 137 139
901.990662 3563.025391 -11449.803711 143 137 139
883.993408 3559.411621 -11438.191406 140 138 139
866.910950 3559.411621 -11438.191406 141 138 139
615.040710 3584.862061 -11519.976562 140 138 139
597.836121 3584.862061 -11519.976562 140 138 139
580.631531 3584.862061 -11519.976562 140 138 139
563.426941 3584.862061 -11519.976562 140 138 139
546.780945 3588.527588 -11531.754883 140 138 139
530.643921 3595.881104 -11555.385742 142 138 137
513.386414 3595.881104 -11555.385742 142 138 136
496.128967 3595.881104 -11555.385742 141 138 138
478.871490 3595.881104 -11555.385742 140 138 140
461.614014 3595.881104 -11555.385742 140 138 139
444.356567 3595.881104 -11555.385742 140 138 139
427.099091 3595.881104 -11555.385742 142 137 139
409.422119 3592.200439 -11543.558594 142 137 139
392.182312 3592.200439 -11543.558594 140 138 139
375.326691 3595.881104 -11555.385742 140 137 138
358.069214 3595.881104 -11555.385742 139 137 137
340.811737 3595.881104 -11555.385742 139 137 137
323.554260 3595.881104 -11555.385742 141 136 137
306.296814 3595.881104 -11555.385742 141 137 138
289.039337 3595.881104 -11555.385742 140 138 139
272.060608 3599.569092 -11567.237305 140 138 139
254.785446 3599.569092 -11567.237305 140 138 139
237.510284 3599.569092 -11567.237305 140 138 139
220.914841 3610.678955 -11602.939453 140 138 139
204.006119 3618.123535 -11626.862305 140 138 139
187.608963 3636.870361 -11687.105469 139 137 138
170.331284 3640.643066 -11699.228516 139 137 137
152.858994 3640.643066 -11699.228516 140 138 139
135.386703 3640.643066 -11699.228516 140 138 139
117.914413 3640.643066 -11699.228516 140 138 139
100.442123 3640.643066 -11699.228516 139 138 139
82.969826 3640.643066 -11699.228516 140 138 139
65.361931 3633.105469 -11675.006836 141 138 139
47.728180 3618.123535 -11626.862305 142 137 139
30.301485 3610.678955 -11602.939453 141 136 137
12.972999 3610.678955 -11602.939453 141 136 137
-4.355489 3610.678955 -11602.939453 140 137 137
-21.683977 3610.678955 -11602.939453 140 138 139
-39.254776 3633.105469 -11675.006836 140 138 139
-56.749641 3636.870361 -11687.105469 140 138 139
-74.280807 3640.643066 -11699.228516 140 138 139
-91.753098 3640.643066 -11699.228516 140 138 139
-109.225388 3640.643066 -11699.228516 139 137 138
-126.697678 3640.643066 -11699.228516 139 137 137
-336.365204 3640.643066 -11699.228516 139 137 137
-352.011688 3621.857422 -11638.861328 140 138 139
-369.013000 3618.123535 -11626.862305 138 137 138
-386.775970 3621.857422 -11638.861328 137 137 137
-404.158112 3621.857422 -11638.861328 138 137 137
-421.540253 3621.857422 -11638.861328 141 137 139
-438.018311 3614.397461 -11614.888672 142 137 139
-455.364655 3614.397461 -11614.888672 141 136 137
-472.710968 3614.397461 -11614.888672 141 136 136
-490.057312 3614.397461 -11614.888672 140 136 135
-507.403656 3614.397461 -11614.888672 140 135 135
-524.750000 3614.397461 -11614.888672 140 135 136
-542.655151 3618.123535 -11626.862305 140 135 136
-560.019409 3618.123535 -11626.862305 141 136 137
-577.383667 3618.123535 -11626.862305 141 136 137
-594.747864 3618.123535 -11626.862305 140 137 137
-612.112061 3618.123535 -11626.862305 138 137 137
-629.476318 3618.123535 -11626.862305 138 137 137
-646.840515 3618.123535 -11626.862305 136 136 136
-660.121521 3595.881104 -11555.385742 136 135 135
-682.977112 3625.599121 -11650.884766 138 136 136
-702.554565 3636.870361 -11687.105469 137 135 135
-717.777344 3625.599121 -11650.884766 136 135 135
-731.399536 3606.968018 -11591.013672 138 137 137
-746.408813 3595.881104 -11555.385742 139 137 137
-762.884644 3592.200439 -11543.558594 139 137 137
-780.124451 3592.200439 -11543.558594 138 136 136
-797.364258 3592.200439 -11543.558594 137 135 135
-813.771179 3588.527588 -11531.754883 137 135 135
-830.993347 3588.527588 -11531.754883 137 135 135
-849.083679 3592.200439 -11543.558594 138 136 136
-866.323486 3592.200439 -11543.558594 138 136 135
-881.758301 3584.862061 -11519.976562 139 137 135
-897.130127 3577.553467 -11496.490234 139 137 135
-909.663208 3559.411621 -11438.191406 139 137 136
-926.745667 3559.411621 -11438.191406 136 136 135
-943.828125 3559.411621 -11438.191406 136 135 134
-957.995728 3548.614746 -11403.495117 138 137 136
-974.041504 3545.030273 -11391.976562 139 137 138
-991.054932 3545.030273 -11391.976562 137 136 136
-1293.347290 3581.204102 -11508.220703 136 131 132
-1306.534668 3570.274658 -11473.099609 134 131 131
-1323.669312 3570.274658 -11473.099609 133 131 132
-1336.724365 3559.411621 -11438.191406 134 131 132
-1353.806763 3559.411621 -11438.191406 135 131 132
-1384.935181 3595.881104 -11555.385742 134 131 132
-1402.192627 3595.881104 -11555.385742 133 131 132
-1419.450195 3595.881104 -11555.385742 132 131 131
-1436.707642 3595.881104 -11555.385742 132 129 128
-1453.965088 3595.881104 -11555.385742 129 123 123
-1471.222534 3595.881104 -11555.385742 123 117 114
-1488.479980 3595.881104 -11555.385742 118 112 109
-1505.737427 3595.881104 -11555.385742 116 110 108
-1522.994995 3595.881104 -11555.385742 115 110 109
-1541.832153 3599.569092 -11567.237305 115 109 108
-1559.107300 3599.569092 -11567.237305 117 110 110
-1576.382446 3599.569092 -11567.237305 115 111 111
-1592.024780 3595.881104 -11555.385742 112 110 111
-1609.282349 3595.881104 -11555.385742 112 110 111
-1626.539795 3595.881104 -11555.385742 111 109 109
-1643.797241 3595.881104 -11555.385742 111 109 110
-1661.054688 3595.881104 -11555.385742 113 110 112
-1678.312134 3595.881104 -11555.385742 113 109 110
-1695.569702 3595.881104 -11555.385742 114 108 110
-1718.108154 3606.968018 -11591.013672 117 110 112
-1735.418823 3606.968018 -11591.013672 116 109 110
-1747.342041 3595.881104 -11555.385742 115 111 109
-1762.793335 3592.200439 -11543.558594 116 111 110
-1780.033203 3592.200439 -11543.558594 116 110 111
-1795.435303 3588.527588 -11531.754883 115 111 111
-1812.657471 3588.527588 -11531.754883 114 111 111
-1833.629395 3595.881104 -11555.385742 115 111 111
-1850.886841 3595.881104 -11555.385742 114 111 112
-1864.323975 3588.527588 -11531.754883 116 113 113
-1881.546143 3588.527588 -11531.754883 117 114 114
-1896.828857 3584.862061 -11519.976562 118 113 114
-1914.033447 3584.862061 -11519.976562 119 113 114
-1935.191406 3592.200439 -11543.558594 118 113 114
-1952.431274 3592.200439 -11543.558594 119 114 114
-1969.671021 3592.200439 -11543.558594 120 116 114
-1986.910889 3592.200439 -11543.558594 120 115 115
-2006.204102 3595.881104 -11555.385742 119 114 115
-2023.461548 3595.881104 -11555.385742 119 116 117
-2040.718994 3595.881104 -11555.385742 119 117 118
-2062.202393 3603.264893 -11579.113281 120 117 118
-2079.495117 3603.264893 -11579.113281 122 117 118
-2094.637695 3599.569092 -11567.237305 123 118 119
-2109.749023 3595.881104 -11555.385742 124 118 119
-2129.187988 3599.569092 -11567.237305 126 118 120
-2148.666748 3603.264893 -11579.113281 124 118 119
-2186.160400 3636.870361 -11687.105469 123 121 121
-2203.614502 3636.870361 -11687.105469 125 122 122
-2221.068848 3636.870361 -11687.105469 124 119 120
-2238.522949 3636.870361 -11687.105469 124 120 121
-2260.662354 3644.423584 -11711.377930 124 122 122
-2278.152832 3644.423584 -11711.377930 125 123 123
-2293.261719 3640.643066 -11699.228516 126 124 125
-2310.734131 3640.643066 -11699.228516 125 124 126
-2330.624023 3644.423584 -11711.377930 125 124 127
-2348.114502 3644.423584 -11711.377930 125 124 127
-2348.533691 3618.123535 -11626.862305 125 124 127
-2346.544922 3588.527588 -11531.754883 125 124 128
-2363.767090 3588.527588 -11531.754883 127 123 127
-2459.938965 3603.264893 -11579.113281 126 127 127
-2477.231934 3603.264893 -11579.113281 129 127 127
-2494.524902 3603.264893 -11579.113281 131 128 128
-2511.817627 3603.264893 -11579.113281 131 129 129
-2531.709961 3606.968018 -11591.013672 131 129 130
-2551.643066 3610.678955 -11602.939453 132 130 130
-2568.971436 3610.678955 -11602.939453 132 130 131
-2583.641846 3606.968018 -11591.013672 132 130 133
-2600.952637 3606.968018 -11591.013672 131 129 130
-2615.575195 3603.264893 -11579.113281 132 130 130
-2632.868164 3603.264893 -11579.113281 133 131 131
-2650.160889 3603.264893 -11579.113281 133 131 132
-2670.195312 3606.968018 -11591.013672 133 131 132
-2690.270996 3610.678955 -11602.939453 133 131 132
-2707.599365 3610.678955 -11602.939453 131 132 132
-2724.927979 3610.678955 -11602.939453 133 134 133
-2736.625488 3603.264893 -11579.113281 133 133 133
-2748.275146 3595.881104 -11555.385742 133 133 133
-2765.532715 3595.881104 -11555.385742 133 133 133
-2860.944092 3629.348389 -11662.933594 133 133 133
-2863.555908 3610.678955 -11602.939453 134 134 134
-2880.884277 3610.678955 -11602.939453 134 134 134
-2901.197510 3614.397461 -11614.888672 134 134 134
-2918.543945 3614.397461 -11614.888672 136 136 137
-2932.869873 3610.678955 -11602.939453 136 136 138
-2950.198242 3610.678955 -11602.939453 137 137 141
-2970.583008 3614.397461 -11614.888672 136 134 139
-2987.929199 3614.397461 -11614.888672 138 136 139
-2996.019043 3603.264893 -11579.113281 139 137 137
-3013.312012 3603.264893 -11579.113281 139 137 137
-3033.719482 3606.968018 -11591.013672 138 137 136
-3054.169189 3610.678955 -11602.939453 139 138 138
-3074.660889 3614.397461 -11614.888672 138 139 139
-3095.194824 3618.123535 -11626.862305 138 139 140
-3122.215332 3629.348389 -11662.933594 139 138 140
-3139.633545 3629.348389 -11662.933594 139 137 138
-3157.051514 3629.348389 -11662.933594 143 141 143
-3174.469727 3629.348389 -11662.933594 141 140 142
-3191.887695 3629.348389 -11662.933594 158 159 161
-3209.305908 3629.348389 -11662.933594 206 209 210
-3230.064209 3633.105469 -11675.006836 220 220 222
-3282.372559 3633.105469 -11675.006836 221 221 225
-3286.201172 3618.123535 -11626.862305 220 220 225
-3296.768066 3610.678955 -11602.939453 220 220 224
-3314.096436 3610.678955 -11602.939453 220 220 223
-3331.425049 3610.678955 -11602.939453 220 220 222
-3348.753418 3610.678955 -11602.939453 218 217 220
-3362.622559 3606.968018 -11591.013672 217 216 220
-3383.410400 3610.678955 -11602.939453 217 217 221
-3707.181641 3781.875000 -12153.078125 176 175 177
-3717.320312 3773.741943 -12126.942383 146 146 149
-3603.683838 3640.643066 -11699.228516 138 137 143
-3613.658936 3633.105469 -11675.006836 135 133 139
-3627.339844 3629.348389 -11662.933594 133 130 134
-3626.009277 3610.678955 -11602.939453 130 125 128
-3635.856689 3603.264893 -11579.113281 124 119 120
-3649.402588 3599.569092 -11567.237305 116 112 113
-3666.677734 3599.569092 -11567.237305 108 106 106
-3683.952881 3599.569092 -11567.237305 106 103 104
-3701.228271 3599.569092 -11567.237305 103 101 101
-3718.503418 3599.569092 -11567.237305 105 104 104
-3735.778564 3599.569092 -11567.237305 113 112 113
-3753.053711 3599.569092 -11567.237305 109 105 106
-3778.078857 3606.968018 -11591.013672 120 114 116
-3799.294189 3610.678955 -11602.939453 10 10 10
-3824.491943 3618.123535 -11626.862305 0 0 0
-3853.775146 3629.348389 -11662.933594 0 0 0
-3875.200684 3633.105469 -11675.006836 0 0 0
-3892.636719 3633.105469 -11675.006836 0 0 0
-3914.124756 3636.870361 -11687.105469 0 0 0
-3931.578857 3636.870361 -11687.105469 0 0 0
-3936.794434 3625.599121 -11650.884766 0 0 0
-3929.835938 3603.264893 -11579.113281 0 0 0
-3935.008789 3592.200439 -11543.558594 0 0 0
-3964.421875 3603.264893 -11579.113281 0 0 0
-3294.719971 2776.566406 -8922.513672 0 0 0
-3308.045410 2776.566406 -8922.513672 0 0 0
-3321.370850 2776.566406 -8922.513672 0 0 0
-3334.696045 2776.566406 -8922.513672 0 0 0
-3348.021484 2776.566406 -8922.513672 0 0 0
-3361.346924 2776.566406 -8922.513672 0 0 0
-3614.529297 2776.566406 -8922.513672 0 0 0
-3627.854736 2776.566406 -8922.513672 0 0 0
-3641.179932 2776.566406 -8922.513672 0 0 0
-3654.505371 2776.566406 -8922.513672 0 0 0
-3667.830811 2776.566406 -8922.513672 0 0 0
-3681.156250 2776.566406 -8922.513672 0 0 0
inf -inf inf 0 0 0
inf -inf inf 0 0 0
-inf -inf inf 130 128 127
-inf -inf inf 131 128 126
-inf -inf inf 133 129 128
-inf -inf inf 134 130 128
-inf -inf inf 133 129 129
-inf -inf inf 131 129 129
-inf -inf inf 131 129 129
-inf -inf inf 131 129 129
-inf -inf inf 132 129 129
-inf -inf inf 135 130 131
-inf -inf inf 135 129 130
-inf -inf inf 131 128 128
-inf -inf inf 131 129 129
-inf -inf inf 129 129 129
-inf -inf inf 129 129 129
-inf -inf inf 132 130 130
-inf -inf inf 132 130 130
-inf -inf inf 132 130 130
-inf -inf inf 132 130 130
-inf -inf inf 131 129 129
-inf -inf inf 131 129 129
-inf -inf inf 131 129 129
-inf -inf inf 132 130 130
-inf -inf inf 135 130 132
-inf -inf inf 136 128 129
-inf -inf inf 135 129 129
-inf -inf inf 133 128 129
-inf -inf inf 131 127 128
-inf -inf inf 130 128 129
-inf -inf inf 132 131 131
-inf -inf inf 133 131 132
-inf -inf inf 132 130 131
-inf -inf inf 131 129 129
-inf -inf inf 130 128 128
-inf -inf inf 132 130 131
-inf -inf inf 132 131 131
-inf -inf inf 131 129 129
-inf -inf inf 132 130 130
-inf -inf inf 131 129 129
-inf -inf inf 125 125 125
-inf -inf inf 116 119 118
-inf -inf inf 103 106 105
-inf -inf inf 86 85 84
1974.072998 3630.703369 -11723.551758 140 137 137
1948.462646 3615.669434 -11675.006836 141 138 139
1931.026489 3615.669434 -11675.006836 141 138 139
1915.573364 3619.416260 -11687.105469 142 137 139
1898.119141 3619.416260 -11687.105469 141 137 138
1880.665039 3619.416260 -11687.105469 139 136 137
1863.210815 3619.416260 -11687.105469 140 137 139
1845.756592 3619.416260 -11687.105469 139 137 137
1828.302490 3619.416260 -11687.105469 139 137 137
1810.848267 3619.416260 -11687.105469 140 138 139
1793.394043 3619.416260 -11687.105469 140 138 139
1775.939941 3619.416260 -11687.105469 140 138 139
1756.665283 3615.669434 -11675.006836 140 138 139
1735.635742 3608.198975 -11650.884766 140 138 139
1712.927002 3597.051025 -11614.888672 140 138 139
1695.580688 3597.051025 -11614.888672 140 138 139
1678.234375 3597.051025 -11614.888672 139 137 137
1657.473999 3589.657471 -11591.013672 139 138 138
1635.121948 3578.623535 -11555.385742 141 138 139
1614.555908 3571.305420 -11531.754883 142 137 139
1597.333740 3571.305420 -11531.754883 142 137 138
1575.279419 3560.384033 -11496.490234 142 138 138
1558.109863 3560.384033 -11496.490234 143 137 138
1540.940430 3560.384033 -11496.490234 143 137 139
1537.879883 3593.350342 -11602.939453 144 137 139
1518.988647 3589.657471 -11591.013672 144 137 139
1490.951660 3564.017090 -11508.220703 144 137 139
1473.764648 3564.017090 -11508.220703 142 137 139
1456.577637 3564.017090 -11508.220703 141 138 139
1439.390625 3564.017090 -11508.220703 140 138 139
1422.203613 3564.017090 -11508.220703 140 138 139
1405.016479 3564.017090 -11508.220703 140 138 139
1396.378784 3585.971924 -11579.113281 140 138 139
1387.633911 3608.198975 -11650.884766 140 138 139
1374.493652 3619.416260 -11687.105469 139 138 139
1357.039429 3619.416260 -11687.105469 139 139 139
1340.974854 3623.170898 -11699.228516 139 138 139
1323.502563 3623.170898 -11699.228516 140 138 139
1306.030273 3623.170898 -11699.228516 140 138 139
1288.557983 3623.170898 -11699.228516 141 137 139
1268.453979 3615.669434 -11675.006836 141 138 139
1240.742554 3585.971924 -11579.113281 142 137 139
1223.449707 3585.971924 -11579.113281 141 138 139
1206.156738 3585.971924 -11579.113281 140 138 139
1187.644531 3582.293945 -11567.237305 140 138 139
1157.312500 3542.329346 -11438.191406 140 138 139
1140.230103 3542.329346 -11438.191406 141 138 139
1125.430420 3549.529053 -11461.439453 142 137 139
1112.837036 3564.017090 -11508.220703 142 137 139
1096.769165 3567.657471 -11519.976562 142 137 139
1080.668457 3571.305420 -11531.754883 142 137 139
1063.446167 3571.305420 -11531.754883 142 137 139
1045.155396 3567.657471 -11519.976562 141 138 139
1026.901855 3564.017090 -11508.220703 140 138 139
1009.714844 3564.017090 -11508.220703 141 138 139
992.527771 3564.017090 -11508.220703 141 138 139
974.346558 3560.384033 -11496.490234 140 138 139
955.229553 3553.140137 -11473.099609 139 139 139
933.347534 3535.158447 -11415.037109 140 138 139
915.373169 3531.583984 -11403.495117 143 137 139
897.435120 3528.016846 -11391.976562 143 137 139
879.533325 3524.456787 -11380.481445 142 137 139
861.667542 3520.903809 -11369.008789 142 137 139
844.688416 3520.903809 -11369.008789 142 137 139
659.913818 3531.583984 -11403.495117 141 138 139
642.883179 3531.583984 -11403.495117 140 138 139
625.852539 3531.583984 -11403.495117 139 137 137
609.438110 3535.158447 -11415.037109 139 137 137
592.390259 3535.158447 -11415.037109 140 138 139
575.342407 3535.158447 -11415.037109 140 138 139
557.730042 3531.583984 -11403.495117 140 138 139
540.699463 3531.583984 -11403.495117 140 138 139
523.668823 3531.583984 -11403.495117 140 138 139
508.179688 3542.329346 -11438.191406 140 138 138
491.097229 3542.329346 -11438.191406 140 138 136
473.534515 3538.740234 -11426.602539 140 138 136
456.469391 3538.740234 -11426.602539 140 138 138
439.849884 3542.329346 -11438.191406 140 138 139
424.489532 3556.758301 -11484.783203 141 138 139
405.684998 3542.329346 -11438.191406 141 138 139
390.583221 3560.384033 -11496.490234 139 138 138
373.413696 3560.384033 -11496.490234 139 137 137
356.607697 3564.017090 -11508.220703 139 137 138
339.420685 3564.017090 -11508.220703 140 137 137
322.233643 3564.017090 -11508.220703 140 136 137
305.358215 3567.657471 -11519.976562 142 137 138
288.448242 3571.305420 -11531.754883 142 137 139
271.226074 3571.305420 -11531.754883 141 138 139
254.003891 3571.305420 -11531.754883 140 138 139
236.539856 3567.657471 -11519.976562 140 138 139
219.559540 3571.305420 -11531.754883 140 138 139
202.751984 3578.623535 -11555.385742 140 138 139
185.875412 3585.971924 -11579.113281 140 138 138
169.277695 3600.759521 -11626.862305 139 137 138
152.542526 3615.669434 -11675.006836 139 138 139
135.106400 3615.669434 -11675.006836 138 139 139
117.914413 3623.170898 -11699.228516 139 139 139
100.442123 3623.170898 -11699.228516 138 139 139
82.969826 3623.170898 -11699.228516 139 139 139
65.361931 3615.669434 -11675.006836 139 138 139
47.629974 3593.350342 -11602.939453 140 138 139
30.239265 3585.971924 -11579.113281 140 137 137
12.959665 3589.657471 -11591.013672 141 136 137
-4.355489 3593.350342 -11602.939453 140 135 136
-21.661692 3589.657471 -11591.013672 141 136 137
-38.972370 3589.657471 -11591.013672 141 138 139
-56.749641 3619.416260 -11687.105469 139 137 137
-74.280807 3623.170898 -11699.228516 139 137 138
-91.753098 3623.170898 -11699.228516 140 138 140
-109.225388 3623.170898 -11699.228516 141 138 139
-126.697678 3623.170898 -11699.228516 141 136 137
-144.020569 3619.416260 -11687.105469 142 137 139
-318.232666 3615.669434 -11675.006836 142 137 139
-333.940308 3597.051025 -11614.888672 141 137 139
-350.204651 3585.971924 -11579.113281 142 137 139
-367.497559 3585.971924 -11579.113281 140 137 137
-385.582214 3593.350342 -11602.939453 138 137 137
-402.910706 3593.350342 -11602.939453 139 136 137
-420.239197 3593.350342 -11602.939453 139 135 136
-437.117981 3589.657471 -11591.013672 141 137 138
-454.896179 3593.350342 -11602.939453 141 136 138
-472.224640 3593.350342 -11602.939453 140 136 137
-490.057312 3597.051025 -11614.888672 140 135 136
-506.360687 3589.657471 -11591.013672 140 135 136
-523.671387 3589.657471 -11591.013672 140 136 137
-541.538574 3593.350342 -11602.939453 140 137 137
-558.867126 3593.350342 -11602.939453 139 137 137
-575.603455 3589.657471 -11591.013672 141 136 137
-590.486633 3574.960693 -11543.558594 140 136 137
-607.726440 3574.960693 -11543.558594 137 137 137
-624.966248 3574.960693 -11543.558594 136 136 137
-642.206055 3574.960693 -11543.558594 135 136 136
-654.754639 3549.529053 -11461.439453 136 135 135
-671.871826 3549.529053 -11461.439453 137 135 135
-692.507812 3567.657471 -11519.976562 136 134 135
-714.088867 3589.657471 -11591.013672 137 136 136
-727.660278 3571.305420 -11531.754883 138 137 137
-741.093628 3553.140137 -11473.099609 139 136 137
-756.688660 3545.925537 -11449.803711 138 136 135
-773.788452 3545.925537 -11449.803711 137 135 135
-790.888245 3545.925537 -11449.803711 137 135 135
-807.988037 3545.925537 -11449.803711 137 135 135
-825.087769 3545.925537 -11449.803711 137 135 135
-842.187561 3545.925537 -11449.803711 138 136 136
-861.912476 3556.758301 -11484.783203 139 137 137
-879.064514 3556.758301 -11484.783203 139 137 137
-892.580750 3542.329346 -11438.191406 139 137 136
-906.903870 3531.583984 -11403.495117 138 137 136
-923.934509 3531.583984 -11403.495117 135 135 135
-940.965149 3531.583984 -11403.495117 135 135 135
-957.995728 3531.583984 -11403.495117 137 135 135
-974.041504 3528.016846 -11391.976562 139 137 137
-991.054932 3528.016846 -11391.976562 139 137 137
-1009.087646 3531.583984 -11403.495117 138 135 136
-1272.265503 3553.140137 -11473.099609 135 132 131
-1282.874756 3535.158447 -11415.037109 136 132 130
-1298.608276 3531.583984 -11403.495117 136 131 130
-1315.638916 3531.583984 -11403.495117 135 131 132
-1331.323364 3528.016846 -11391.976562 134 129 131
-1348.336792 3528.016846 -11391.976562 134 129 130
-1365.350220 3528.016846 -11391.976562 132 130 130
-1386.565430 3538.740234 -11426.602539 132 130 131
-1405.054077 3542.329346 -11438.191406 133 131 132
-1423.580322 3545.925537 -11449.803711 133 130 131
-1445.081421 3556.758301 -11484.783203 130 124 125
-1463.723999 3560.384033 -11496.490234 118 111 112
-1480.893433 3560.384033 -11496.490234 116 110 109
-1498.062988 3560.384033 -11496.490234 115 110 107
-1518.328003 3567.657471 -11519.976562 114 110 107
-1537.102661 3571.305420 -11531.754883 115 110 108
-1555.915771 3574.960693 -11543.558594 117 110 110
-1573.155518 3574.960693 -11543.558594 114 111 111
-1587.146362 3567.657471 -11519.976562 111 110 111
-1604.350952 3567.657471 -11519.976562 112 110 111
-1618.249512 3560.384033 -11496.490234 112 110 110
-1632.091675 3553.140137 -11473.099609 111 109 108
-1649.226196 3553.140137 -11473.099609 112 110 110
-1666.360840 3553.140137 -11473.099609 115 110 111
-1685.209717 3556.758301 -11484.783203 116 109 111
-1704.097168 3560.384033 -11496.490234 116 109 112
-1721.266602 3560.384033 -11496.490234 115 109 110
-1733.135986 3549.529053 -11461.439453 115 111 110
-1744.933228 3538.740234 -11426.602539 115 111 111
-1761.998413 3538.740234 -11426.602539 116 111 111
-1779.063477 3538.740234 -11426.602539 116 111 110
-1796.128662 3538.740234 -11426.602539 117 112 111
-1813.193848 3538.740234 -11426.602539 116 113 111
-1830.258911 3538.740234 -11426.602539 114 112 110
-1849.197632 3542.329346 -11438.191406 115 113 111
-1864.389160 3538.740234 -11426.602539 116 114 112
-1879.550049 3535.158447 -11415.037109 116 114 114
-1896.597900 3535.158447 -11415.037109 117 113 114
-1913.645752 3535.158447 -11415.037109 119 113 114
-1930.693604 3535.158447 -11415.037109 119 114 115
-1947.741455 3535.158447 -11415.037109 118 116 116
-1964.789429 3535.158447 -11415.037109 118 116 116
-1985.857178 3542.329346 -11438.191406 118 116 116
-2002.939575 3542.329346 -11438.191406 118 116 116
-2026.186890 3553.140137 -11473.099609 118 116 116
-2043.321533 3553.140137 -11473.099609 119 117 118
-2060.456055 3553.140137 -11473.099609 120 117 118
-2073.372314 3545.925537 -11449.803711 123 117 116
-2090.471924 3545.925537 -11449.803711 125 117 117
-2105.434326 3542.329346 -11438.191406 124 117 119
-2120.366211 3538.740234 -11426.602539 122 117 119
-2137.431396 3538.740234 -11426.602539 123 120 120
-2183.252686 3585.971924 -11579.113281 124 122 122
-2207.344482 3597.051025 -11614.888672 123 121 121
-2224.690674 3597.051025 -11614.888672 123 121 121
-2242.036865 3597.051025 -11614.888672 124 122 122
-2261.712402 3600.759521 -11626.862305 125 121 122
-2233.034668 3528.016846 -11391.976562 126 121 122
-2250.048096 3528.016846 -11391.976562 124 123 125
-2313.805176 3600.759521 -11626.862305 124 124 127
-2316.838379 3578.623535 -11555.385742 123 123 126
-2303.415039 3531.583984 -11403.495117 125 124 127
-2315.762695 3524.456787 -11380.481445 125 124 125
-2332.759033 3524.456787 -11380.481445 128 124 126
-2349.755127 3524.456787 -11380.481445 131 125 127
-2405.590576 3582.293945 -11567.237305 130 124 126
-2420.383301 3578.623535 -11555.385742 129 125 126
-2437.640625 3578.623535 -11555.385742 127 125 126
-2449.877930 3571.305420 -11531.754883 127 125 126
-2472.155518 3578.623535 -11555.385742 129 127 127
-2489.413086 3578.623535 -11555.385742 130 128 128
-2506.670654 3578.623535 -11555.385742 130 128 128
-2523.927979 3578.623535 -11555.385742 132 130 130
-2543.791748 3582.293945 -11567.237305 133 130 131
-2561.066895 3582.293945 -11567.237305 133 131 133
-2578.342285 3582.293945 -11567.237305 131 128 131
-2595.617432 3582.293945 -11567.237305 132 130 132
-2610.215332 3578.623535 -11555.385742 132 130 130
-2627.472900 3578.623535 -11555.385742 133 131 131
-2644.730225 3578.623535 -11555.385742 133 131 132
-2661.987793 3578.623535 -11555.385742 133 131 133
-2673.766113 3571.305420 -11531.754883 133 131 133
-2690.988281 3571.305420 -11531.754883 134 131 133
-2697.179199 3556.758301 -11484.783203 135 133 133
-2706.064209 3545.925537 -11449.803711 135 133 133
-2714.895264 3535.158447 -11415.037109 134 132 134
-2731.943115 3535.158447 -11415.037109 133 133 136
-2748.990967 3535.158447 -11415.037109 133 132 135
-2826.107910 3611.930420 -11662.933594 133 133 135
-2831.812256 3597.051025 -11614.888672 133 133 134
-2822.992920 3564.017090 -11508.220703 134 134 135
-2840.179932 3564.017090 -11508.220703 137 135 135
-2857.366943 3564.017090 -11508.220703 137 135 135
-2880.432373 3571.305420 -11531.754883 135 135 135
-2909.554443 3585.971924 -11579.113281 136 136 136
-2926.847412 3585.971924 -11579.113281 139 137 137
-2944.140381 3585.971924 -11579.113281 139 137 137
-2961.433350 3585.971924 -11579.113281 138 136 137
-2978.726074 3585.971924 -11579.113281 140 138 139
-2986.819336 3574.960693 -11543.558594 139 137 137
-3000.987549 3571.305420 -11531.754883 138 136 136
-3018.209717 3571.305420 -11531.754883 138 136 136
-3041.652100 3578.623535 -11555.385742 139 138 140
-3058.909668 3578.623535 -11555.385742 139 138 140
-3079.322021 3582.293945 -11567.237305 139 138 140
-3112.559082 3600.759521 -11626.862305 139 137 140
-3133.153320 3604.475342 -11638.861328 142 140 141
-3150.535400 3604.475342 -11638.861328 142 139 140
-3161.392578 3597.051025 -11614.888672 150 147 147
-3182.015869 3600.759521 -11626.862305 191 189 190
-3199.380127 3600.759521 -11626.862305 218 217 219
-3226.723877 3611.930420 -11662.933594 221 220 222
-3247.500244 3615.669434 -11675.006836 223 220 223
-3282.372559 3615.669434 -11675.006836 220 220 224
-3279.439453 3593.350342 -11602.939453 220 220 225
-3293.379883 3589.657471 -11591.013672 220 220 224
-3300.514160 3578.623535 -11555.385742 219 219 222
-3317.771729 3578.623535 -11555.385742 219 219 222
-3335.029053 3578.623535 -11555.385742 217 217 221
-3359.170166 3585.971924 -11579.113281 217 216 220
-3383.410400 3593.350342 -11602.939453 216 215 218
-3530.132568 3619.416260 -11687.105469 197 196 198
-3540.249512 3611.930420 -11662.933594 182 181 183
-3543.011963 3597.051025 -11614.888672 155 153 155
-3553.040039 3589.657471 -11591.013672 140 138 140
-3570.350586 3589.657471 -11591.013672 133 133 135
-3580.302002 3582.293945 -11567.237305 131 131 133
-3597.577148 3582.293945 -11567.237305 129 126 129
-3607.452393 3574.960693 -11543.558594 126 123 124
-3620.986084 3571.305420 -11531.754883 119 115 115
-3630.783203 3564.017090 -11508.220703 109 106 106
-3647.970215 3564.017090 -11508.220703 103 101 101
-3672.652588 3571.305420 -11531.754883 103 101 101
-3689.874756 3571.305420 -11531.754883 107 105 105
-3707.096924 3571.305420 -11531.754883 111 110 110
-3728.131104 3574.960693 -11543.558594 114 112 112
-3749.208252 3578.623535 -11555.385742 105 101 102
-3766.465820 3578.623535 -11555.385742 112 107 108
-3787.604004 3582.293945 -11567.237305 7 7 7
-3816.622559 3593.350342 -11602.939453 0 0 0
-3841.856201 3600.759521 -11626.862305 0 0 0
-3859.220459 3600.759521 -11626.862305 0 0 0
-3888.611328 3611.930420 -11662.933594 0 0 0
-3906.029297 3611.930420 -11662.933594 0 0 0
-3919.394287 3608.198975 -11650.884766 0 0 0
-3912.542969 3585.971924 -11579.113281 0 0 0
-3913.762939 3571.305420 -11531.754883 0 0 0
-3914.973145 3556.758301 -11484.783203 0 0 0
-3948.207275 3571.305420 -11531.754883 0 0 0
-3281.394531 2763.240967 -8922.513672 0 0 0
-3294.719971 2763.240967 -8922.513672 0 0 0
-3308.045410 2763.240967 -8922.513672 0 0 0
-3321.370850 2763.240967 -8922.513672 0 0 0
-3334.696045 2763.240967 -8922.513672 0 0 0
-3348.021484 2763.240967 -8922.513672 0 0 0
-3361.346924 2763.240967 -8922.513672 0 0 0
-3374.672363 2763.240967 -8922.513672 0 0 0
-3387.997559 2763.240967 -8922.513672 0 0 0
-3401.322998 2763.240967 -8922.513672 0 0 0
-3414.648438 2763.240967 -8922.513672 0 0 0
-3624.141357 2780.841309 -8979.344727 0 0 0
-3614.529297 2763.240967 -8922.513672 0 0 0
-3627.854736 2763.240967 -8922.513672 0 0 0
-3641.179932 2763.240967 -8922.513672 0 0 0
-3654.505371 2763.240967 -8922.513672 0 0 0
-3667.830811 2763.240967 -8922.513672 0 0 0
-3681.156250 2763.240967 -8922.513672 0 0 0
-3694.481689 2763.240967 -8922.513672 0 0 0
inf -inf inf 0 0 0
inf -inf inf 0 0 0
-inf -inf inf 131 129 127
-inf -inf inf 130 128 126
-inf -inf inf 131 129 126
-inf -inf inf 132 130 127
-inf -inf inf 131 129 128
-inf -inf inf 130 128 128
-inf -inf inf 131 129 129
-inf -inf inf 131 130 130
-inf -inf inf 132 130 130
-inf -inf inf 133 129 129
-inf -inf inf 133 128 129
-inf -inf inf 133 128 129
-inf -inf inf 132 128 129
-inf -inf inf 130 129 129
-inf -inf inf 129 129 129
-inf -inf inf 131 129 129
-inf -inf inf 131 129 129
-inf -inf inf 132 128 129
-inf -inf inf 133 129 129
-inf -inf inf 133 130 130
-inf -inf inf 131 129 129
-inf -inf inf 130 130 129
-inf -inf inf 132 132 132
-inf -inf inf 133 130 130
-inf -inf inf 136 131 132
-inf -inf inf 135 130 132
-inf -inf inf 134 129 130
-inf -inf inf 132 128 128
-inf -inf inf 132 130 128
-inf -inf inf 133 131 130
-inf -inf inf 133 131 132
-inf -inf inf 133 131 132
-inf -inf inf 133 131 131
-inf -inf inf 131 128 129
-inf -inf inf 131 128 128
-inf -inf inf 132 130 130
-inf -inf inf 130 129 129
-inf -inf inf 128 128 128
-inf -inf inf 126 127 127
-inf -inf inf 114 116 116
-inf -inf inf 85 90 91
-inf -inf inf 56 62 62
1878.718140 3598.233398 -11675.006836 143 136 138
1861.281982 3598.233398 -11675.006836 142 136 137
1845.756592 3601.961914 -11687.105469 142 136 137
1828.302490 3601.961914 -11687.105469 140 137 137
1808.973633 3598.233398 -11675.006836 139 137 137
1791.537598 3598.233398 -11675.006836 139 137 139
1774.101440 3598.233398 -11675.006836 139 137 140
1747.619629 3579.704834 -11614.888672 141 138 140
1712.635498 3543.214355 -11496.490234 142 137 139
1678.357300 3507.460449 -11380.481445 142 137 138
1661.361084 3507.460449 -11380.481445 142 137 139
1646.025757 3511.003418 -11391.976562 142 137 139
1629.012329 3511.003418 -11391.976562 142 137 139
1608.748901 3503.924805 -11369.008789 141 138 139
1590.166870 3500.396240 -11357.559570 141 138 139
1571.622070 3496.874512 -11346.133789 141 138 139
1554.677124 3496.874512 -11346.133789 142 137 139
1539.280762 3500.396240 -11357.559570 142 137 139
1522.318726 3500.396240 -11357.559570 143 137 139
1506.874268 3503.924805 -11369.008789 143 137 139
1491.398560 3507.460449 -11380.481445 143 137 139
1474.402222 3507.460449 -11380.481445 144 137 139
1455.936890 3503.924805 -11369.008789 144 137 139
1438.957764 3503.924805 -11369.008789 143 137 139
1421.978638 3503.924805 -11369.008789 142 137 139
1404.999512 3503.924805 -11369.008789 141 138 139
1388.020386 3503.924805 -11369.008789 140 138 139
1368.282593 3496.874512 -11346.133789 141 138 139
1348.624146 3489.852783 -11323.350586 142 137 139
1327.713989 3479.372803 -11289.345703 141 138 139
1308.234863 3472.420898 -11266.790039 140 138 139
1290.119507 3468.955566 -11255.545898 140 138 139
1273.309814 3468.955566 -11255.545898 140 138 139
1253.997192 3462.045166 -11233.124023 141 138 138
1237.220947 3462.045166 -11233.124023 143 138 138
1220.444824 3462.045166 -11233.124023 143 137 138
1203.668579 3462.045166 -11233.124023 142 137 139
1185.711426 3458.600342 -11221.947266 141 138 139
1168.951904 3458.600342 -11221.947266 140 138 139
1155.642090 3468.955566 -11255.545898 140 138 139
1139.970215 3472.420898 -11266.790039 140 138 139
1125.392212 3479.372803 -11289.345703 141 138 139
1123.147583 3525.246826 -11438.191406 143 139 140
1112.837036 3546.830078 -11508.220703 142 137 139
1096.769165 3550.452881 -11519.976562 142 137 139
1080.668457 3554.083252 -11531.754883 142 137 139
1062.359985 3550.452881 -11519.976562 142 137 139
1044.088867 3546.830078 -11508.220703 141 138 139
1015.503357 3507.460449 -11380.481445 140 138 139
1008.685547 3543.214355 -11496.490234 141 138 139
991.516052 3543.214355 -11496.490234 142 137 139
974.346558 3543.214355 -11496.490234 142 137 139
956.202332 3539.606201 -11484.783203 141 137 139
933.347534 3518.110596 -11415.037109 140 138 139
915.373169 3514.553467 -11403.495117 140 138 139
897.435120 3511.003418 -11391.976562 140 138 139
879.533325 3507.460449 -11380.481445 140 138 139
861.667542 3503.924805 -11369.008789 140 138 139
844.688416 3503.924805 -11369.008789 140 138 139
795.354614 3511.003418 -11391.976562 139 138 139
774.429932 3493.360107 -11334.730469 140 138 139
757.502014 3493.360107 -11334.730469 140 138 139
741.319092 3496.874512 -11346.133789 140 138 139
659.247192 3511.003418 -11391.976562 140 138 139
639.006470 3493.360107 -11334.730469 140 138 139
622.078552 3493.360107 -11334.730469 140 138 139
605.150635 3493.360107 -11334.730469 140 137 138
588.222717 3493.360107 -11334.730469 142 138 139
569.007324 3479.372803 -11289.345703 142 137 139
552.147156 3479.372803 -11289.345703 141 138 139
535.287048 3479.372803 -11289.345703 140 138 138
519.466858 3486.352295 -11311.993164 139 137 137
502.572876 3486.352295 -11311.993164 140 138 139
487.144745 3496.874512 -11346.133789 141 138 139
470.199768 3496.874512 -11346.133789 141 137 138
453.254822 3496.874512 -11346.133789 140 138 139
436.309845 3496.874512 -11346.133789 140 138 139
419.787231 3500.396240 -11357.559570 139 138 139
403.231262 3503.924805 -11369.008789 139 138 139
386.252136 3503.924805 -11369.008789 139 139 139
369.645660 3507.460449 -11380.481445 139 139 139
353.005615 3511.003418 -11391.976562 140 138 140
335.992188 3511.003418 -11391.976562 140 138 139
318.978760 3511.003418 -11391.976562 141 136 137
301.965332 3511.003418 -11391.976562 141 137 138
284.951904 3511.003418 -11391.976562 140 138 139
267.668121 3507.460449 -11380.481445 140 138 138
250.166977 3500.396240 -11357.559570 140 135 136
232.502533 3489.852783 -11323.350586 141 137 138
214.729233 3475.893311 -11278.056641 140 138 139
196.901428 3458.600342 -11221.947266 140 138 139
180.141937 3458.600342 -11221.947266 141 137 139
163.220047 3455.162354 -11210.791992 141 138 139
146.622955 3458.600342 -11221.947266 140 139 139
134.966690 3594.512207 -11662.933594 139 138 138
47.925812 3598.233398 -11675.006836 140 138 139
30.301485 3576.021973 -11602.939453 141 138 139
-91.658012 3601.961914 -11687.105469 140 138 139
-109.112206 3601.961914 -11687.105469 139 137 136
-126.566391 3601.961914 -11687.105469 140 137 138
-143.871490 3598.233398 -11675.006836 142 137 139
-157.079788 3503.924805 -11369.008789 142 137 139
-173.883621 3500.396240 -11357.559570 142 137 139
-190.462036 3493.360107 -11334.730469 141 138 139
-207.181747 3489.852783 -11323.350586 140 138 139
-223.867905 3486.352295 -11311.993164 139 137 138
-240.761887 3486.352295 -11311.993164 139 137 137
-257.914551 3489.852783 -11323.350586 139 137 138
-332.229553 3561.366211 -11555.385742 142 138 137
-344.544769 3511.003418 -11391.976562 141 136 137
-361.558197 3511.003418 -11391.976562 140 137 138
-380.493317 3528.825684 -11449.803711 139 137 137
-399.214264 3543.214355 -11496.490234 138 135 135
-417.234406 3550.452881 -11519.976562 139 135 135
-434.438995 3550.452881 -11519.976562 141 137 137
-451.643585 3550.452881 -11519.976562 142 137 138
-469.327576 3554.083252 -11531.754883 139 137 137
-486.549744 3554.083252 -11531.754883 139 137 137
-502.231323 3543.214355 -11496.490234 141 137 138
-519.400818 3543.214355 -11496.490234 141 137 138
-532.768738 3518.110596 -11415.037109 139 137 137
-549.816650 3518.110596 -11415.037109 139 137 137
-565.719299 3511.003418 -11391.976562 139 137 137
-582.144714 3507.460449 -11380.481445 139 137 137
-597.332703 3496.874512 -11346.133789 138 136 136
-614.277649 3496.874512 -11346.133789 138 136 136
-632.495239 3503.924805 -11369.008789 136 134 135
-649.474365 3503.924805 -11369.008789 136 133 134
-665.112549 3496.874512 -11346.133789 137 135 135
-682.057495 3496.874512 -11346.133789 138 136 136
-699.706421 3500.396240 -11357.559570 139 137 137
-716.668396 3500.396240 -11357.559570 139 137 137
-733.630432 3500.396240 -11357.559570 138 136 136
-750.592468 3500.396240 -11357.559570 137 135 135
-767.554504 3500.396240 -11357.559570 137 135 135
-785.307373 3503.924805 -11369.008789 137 135 135
-802.286499 3503.924805 -11369.008789 137 135 135
-818.440552 3500.396240 -11357.559570 138 134 133
-836.244751 3503.924805 -11369.008789 139 135 134
-854.947510 3511.003418 -11391.976562 138 136 135
-871.960938 3511.003418 -11391.976562 137 135 136
-887.182068 3503.924805 -11369.008789 138 136 137
-903.250671 3500.396240 -11357.559570 138 136 136
-920.212708 3500.396240 -11357.559570 135 135 135
-937.174744 3500.396240 -11357.559570 135 134 134
-954.136780 3500.396240 -11357.559570 137 135 135
-971.098755 3500.396240 -11357.559570 138 136 136
-990.054871 3507.460449 -11380.481445 139 137 137
-1009.087646 3514.553467 -11403.495117 138 136 136
-1282.874756 3518.110596 -11415.037109 135 131 130
-1298.608276 3514.553467 -11403.495117 137 132 133
-1314.309937 3511.003418 -11391.976562 135 131 132
-1327.301270 3500.396240 -11357.559570 134 132 133
-1341.561279 3493.360107 -11334.730469 133 131 132
-1358.489258 3493.360107 -11334.730469 132 130 130
-1375.417114 3493.360107 -11334.730469 133 131 131
-1393.745850 3496.874512 -11346.133789 134 130 131
-1410.690796 3496.874512 -11346.133789 133 128 129
-1427.635742 3496.874512 -11346.133789 130 125 126
-1446.035400 3500.396240 -11357.559570 119 114 114
-1462.997437 3500.396240 -11357.559570 116 109 110
-1479.959473 3500.396240 -11357.559570 117 111 110
-1498.430542 3503.924805 -11369.008789 115 111 108
-1515.409668 3503.924805 -11369.008789 115 109 108
-1533.935059 3507.460449 -11380.481445 116 110 109
-1550.931274 3507.460449 -11380.481445 114 110 108
-1567.927612 3507.460449 -11380.481445 112 109 108
-1583.326172 3503.924805 -11369.008789 113 110 110
-1600.305298 3503.924805 -11369.008789 112 110 108
-1614.030273 3496.874512 -11346.133789 114 111 109
-1629.336060 3493.360107 -11334.730469 115 110 109
-1646.264038 3493.360107 -11334.730469 115 109 108
-1663.191895 3493.360107 -11334.730469 116 109 110
-1678.432983 3489.852783 -11323.350586 116 109 111
-1695.343872 3489.852783 -11323.350586 115 109 111
-1713.975708 3493.360107 -11334.730469 114 110 111
-1732.645020 3496.874512 -11346.133789 115 111 112
-1749.589966 3496.874512 -11346.133789 115 111 112
-1766.534912 3496.874512 -11346.133789 115 111 111
-1785.275879 3500.396240 -11357.559570 116 112 110
-1802.237915 3500.396240 -11357.559570 116 114 111
-1821.033813 3503.924805 -11369.008789 115 113 111
-1838.012939 3503.924805 -11369.008789 115 111 111
-1854.992065 3503.924805 -11369.008789 117 112 112
-1870.086060 3500.396240 -11357.559570 116 113 113
-1885.149658 3496.874512 -11346.133789 116 113 114
-1902.094604 3496.874512 -11346.133789 118 113 114
-1919.039551 3496.874512 -11346.133789 118 114 115
-1934.038818 3493.360107 -11334.730469 118 116 116
-1952.929443 3496.874512 -11346.133789 117 115 115
-1969.874390 3496.874512 -11346.133789 118 116 116
-1986.819336 3496.874512 -11346.133789 118 116 116
-2003.764404 3496.874512 -11346.133789 118 116 116
-2018.678467 3493.360107 -11334.730469 117 115 116
-2035.606323 3493.360107 -11334.730469 120 117 118
-2054.599121 3496.874512 -11346.133789 122 118 118
-2073.630371 3500.396240 -11357.559570 124 118 119
-2088.489258 3496.874512 -11346.133789 124 119 118
-2105.434082 3496.874512 -11346.133789 121 118 118
-2120.246094 3493.360107 -11334.730469 121 120 120
-2137.174072 3493.360107 -11334.730469 124 122 122
